# .PCD v0.7 - Point Cloud Data file format
VERSION 0.7
FIELDS x y z intensity
SIZE 4 4 4 4
TYPE F F F F
COUNT 1 1 1 1
WIDTH 1498
HEIGHT 1
VIEWPOINT 0 0 0 1 0 0 0
POINTS 1498
DATA ascii
4.914 0.73199999 0.134 62
4.9089999 0.70300001 0.134 72
4.928 0.67699999 0.134 71
4.9390001 0.64999998 0.13500001 72
4.9549999 0.62300003 0.13500001 76
4.9629998 0.59500003 0.13500001 78
4.9689999 0.56699997 0.13600001 78
4.9640002 0.53799999 0.13500001 78
4.9510002 0.50800002 0.13500001 78
4.9099998 0.47600001 0.134 77
4.882 0.44499999 0.133 76
4.8509998 0.414 0.132 75
4.882 0.389 0.133 73
4.8850002 0.361 0.133 54
4.875 0.333 0.133 49
4.895 0.30599999 0.134 72
4.8699999 0.27700001 0.133 75
4.8979998 0.25 0.134 75
4.915 0.223 0.13500001 74
5.0430002 0.20100001 0.138 100
0.111 0.001 -0.001 154
0.175 0.0020000001 0 193
0.088 0 -0.001 144
4.9689999 0.085000001 0.13699999 91
4.7789998 0.054000001 0.131 74
4.7490001 0.027000001 0.131 74
4.711 0 0.13 74
4.6830001 -0.026000001 0.12899999 75
4.6760001 -0.052999999 0.12899999 75
4.6830001 -0.079000004 0.12899999 76
4.6939998 -0.106 0.12899999 74
4.7199998 -0.133 0.13 74
4.7639999 -0.162 0.132 73
4.7940001 -0.19 0.133 74
4.8000002 -0.21799999 0.133 73
4.8049998 -0.245 0.133 72
4.8039999 -0.273 0.133 73
4.8080001 -0.30000001 0.134 74
4.8039999 -0.32800001 0.134 74
4.8200002 -0.35600001 0.134 74
4.8200002 -0.384 0.134 74
4.8140001 -0.41100001 0.134 74
4.8590002 -0.44299999 0.13600001 76
4.9159999 -0.47600001 0.138 79
4.9120002 -0.50400001 0.138 78
4.8530002 -0.52600002 0.13600001 78
4.8239999 -0.551 0.13600001 77
4.822 -0.579 0.13600001 79
4.796 -0.60299999 0.13500001 78
4.7950001 -0.63099998 0.13500001 78
4.7719998 -0.65600002 0.13500001 78
4.7839999 -0.685 0.13500001 79
4.7800002 -0.713 0.13600001 78
4.7859998 -0.74199998 0.13600001 79
4.79 -0.76999998 0.13600001 79
4.7820001 -0.79699999 0.13600001 79
4.7740002 -0.824 0.13600001 79
4.7639999 -0.85100001 0.13600001 80
4.737 -0.87400001 0.13600001 81
4.7449999 -0.90399998 0.13600001 81
4.7459998 -0.93199998 0.13600001 82
4.73 -0.958 0.13600001 82
4.7069998 -0.98100001 0.13600001 83
4.6810002 -1.0039999 0.13500001 83
4.658 -1.027 0.13500001 84
4.645 -1.053 0.13500001 86
4.631 -1.0779999 0.13500001 86
4.6290002 -1.1059999 0.13500001 85
4.6269999 -1.1339999 0.13500001 87
4.6370001 -1.165 0.13600001 87
4.6279998 -1.191 0.13600001 88
4.6290002 -1.22 0.13600001 90
4.598 -1.2410001 0.13500001 89
4.5939999 -1.2690001 0.13500001 90
4.5770001 -1.293 0.13500001 91
4.5689998 -1.319 0.13500001 92
4.5650001 -1.347 0.13500001 92
4.5619998 -1.376 0.13600001 91
4.5609999 -1.404 0.13600001 92
4.572 -1.437 0.13699999 94
4.572 -1.467 0.13699999 94
4.5799999 -1.499 0.138 94
4.5819998 -1.53 0.138 95
4.566 -1.5549999 0.138 95
4.5710001 -1.586 0.138 96
4.5679998 -1.6160001 0.139 97
4.5630002 -1.645 0.139 98
4.5580001 -1.673 0.139 100
4.5640001 -1.706 0.14 100
4.553 -1.733 0.14 103
4.546 -1.762 0.14 102
4.5440001 -1.7920001 0.14 103
4.526 -1.817 0.14 105
4.527 -1.849 0.141 107
4.5190001 -1.877 0.141 108
4.5110002 -1.905 0.141 112
4.5029998 -1.934 0.141 114
4.5 -1.965 0.141 115
4.4920001 -1.994 0.142 118
4.4749999 -2.0190001 0.141 118
4.4650002 -2.0469999 0.142 120
4.46 -2.0769999 0.142 123
4.4460001 -2.1040001 0.142 125
4.4380002 -2.1329999 0.142 128
4.427 -2.161 0.142 129
4.414 -2.188 0.142 131
4.3979998 -2.214 0.142 134
4.3930001 -2.2449999 0.14300001 136
4.3740001 -2.2690001 0.14300001 139
4.3660002 -2.299 0.14300001 141
4.348 -2.3239999 0.14300001 144
4.3330002 -2.3499999 0.14300001 146
4.3260002 -2.381 0.14300001 148
4.3070002 -2.405 0.14300001 151
4.388 2.477 0.098999999 120
4.3610001 2.427 0.097999997 106
4.3270001 2.3729999 0.097000003 93
4.3470001 2.349 0.097999997 95
4.3899999 2.3380001 0.097999997 99
4.4099998 2.3139999 0.098999999 100
4.4200001 2.2850001 0.098999999 98
4.4369998 2.26 0.098999999 98
4.4720001 2.243 0.1 102
4.4840002 2.2149999 0.1 103
4.5170002 2.198 0.1 102
4.5419998 2.1760001 0.101 99
4.533 2.138 0.1 101
4.5219998 2.099 0.1 110
4.4860001 2.05 0.098999999 110
4.5009999 2.0239999 0.098999999 108
4.5949998 2.033 0.101 101
4.618 2.01 0.101 99
4.6399999 1.987 0.102 106
4.6500001 1.9579999 0.102 109
4.651 1.926 0.102 107
4.6090002 1.876 0.101 112
4.6069999 1.844 0.101 113
4.6230001 1.818 0.101 111
4.6409998 1.793 0.101 108
4.6529999 1.766 0.101 108
4.678 1.744 0.102 105
4.7020001 1.722 0.102 102
4.7360001 1.702 0.103 97
4.7259998 1.6670001 0.103 97
4.743 1.642 0.103 95
4.7589998 1.6160001 0.103 94
4.7670002 1.5880001 0.103 91
4.7989998 1.567 0.104 87
4.8169999 1.5420001 0.104 80
4.8130002 1.5089999 0.104 76
4.7199998 1.45 0.102 64
3.904 1.174 0.082999997 54
4.7909999 1.411 0.103 67
4.8610001 1.401 0.105 73
4.875 1.374 0.105 77
4.8839998 1.346 0.105 74
4.8930001 1.318 0.105 73
4.901 1.289 0.106 71
4.902 1.2589999 0.106 69
0 -0.001 -0.0040000002 73
0.107 0.025 -0.001 105
0.148 0.034000002 0 122
0.061999999 0.013 -0.0020000001 88
-0.0080000004 -0.003 -0.0040000002 72
-0.0040000002 -0.0020000001 -0.0040000002 70
-0.0040000002 -0.0020000001 -0.0040000002 68
0.0060000001 0 -0.0040000002 65
0.013 0.001 -0.003 66
0.0070000002 0 -0.0040000002 66
0.0020000001 0 -0.0040000002 64
0.011 0 -0.0040000002 60
0.016000001 0.001 -0.003 59
0.026000001 0.003 -0.003 56
0.029999999 0.003 -0.003 57
0.046999998 0.0060000001 -0.003 55
0.033 0.003 -0.003 54
0.063000001 0.0070000002 -0.0020000001 54
0.052000001 0.0049999999 -0.003 54
0.064000003 0.0060000001 -0.0020000001 55
0.055 0.0049999999 -0.003 58
0.029999999 0.001 -0.003 73
0.0089999996 0 -0.0040000002 77
0.0060000001 -0.001 -0.0040000002 77
-0.0020000001 -0.0020000001 -0.0040000002 76
-0.0080000004 -0.003 -0.0040000002 75
5.0430002 0.48899999 0.109 75
5.0240002 0.458 0.109 73
5.0040002 0.42699999 0.108 73
4.973 0.396 0.107 64
4.8639998 0.36000001 0.105 37
4.8790002 0.333 0.105 43
4.9629998 0.31 0.107 71
4.947 0.28099999 0.107 75
4.914 0.25099999 0.106 76
4.9320002 0.22400001 0.107 79
0.012 -0.0020000001 -0.003 120
0.152 0.0020000001 0 179
0.164 0.001 0 183
0.035999998 -0.0020000001 -0.003 125
4.8920002 0.082999997 0.107 80
4.8109999 0.054000001 0.105 74
4.8039999 0.027000001 0.105 74
4.777 0 0.104 73
4.7379999 -0.026000001 0.103 74
4.711 -0.052999999 0.103 74
4.698 -0.079999998 0.103 75
4.7119999 -0.107 0.103 73
4.7659998 -0.13500001 0.104 73
4.8150001 -0.164 0.106 73
4.8239999 -0.191 0.106 73
4.8390002 -0.219 0.107 72
4.848 -0.248 0.107 72
4.8340001 -0.27399999 0.107 73
4.8330002 -0.30199999 0.107 73
4.8319998 -0.33000001 0.107 74
4.8319998 -0.35699999 0.107 73
4.8369999 -0.38499999 0.107 73
4.8309999 -0.412 0.107 75
4.8730001 -0.44400001 0.108 75
4.9310002 -0.47799999 0.11 79
4.9219999 -0.505 0.11 79
4.868 -0.528 0.109 78
4.8390002 -0.55299997 0.108 77
4.8309999 -0.57999998 0.108 78
4.8330002 -0.60799998 0.109 78
4.8299999 -0.63599998 0.109 79
4.8260002 -0.66299999 0.109 79
4.7969999 -0.68699998 0.108 79
4.7950001 -0.71499997 0.108 79
4.8049998 -0.745 0.109 80
4.8010001 -0.77200001 0.109 79
4.7950001 -0.80000001 0.109 80
4.7930002 -0.82800001 0.109 79
4.7820001 -0.85399997 0.109 82
4.77 -0.88 0.109 81
4.7379999 -0.903 0.108 81
4.7179999 -0.92699999 0.108 83
4.6939998 -0.95099998 0.108 83
4.6789999 -0.97600001 0.108 83
4.697 -1.008 0.108 84
4.6950002 -1.036 0.109 84
4.7069998 -1.067 0.109 85
4.7049999 -1.095 0.109 86
4.6999998 -1.123 0.109 86
4.6849999 -1.148 0.109 86
4.6589999 -1.17 0.109 88
4.651 -1.197 0.109 88
4.6459999 -1.225 0.109 89
4.6430001 -1.253 0.109 89
4.658 -1.286 0.11 91
4.6659999 -1.318 0.11 91
4.658 -1.345 0.11 91
4.6599998 -1.375 0.111 91
4.6570001 -1.404 0.111 92
4.6589999 -1.434 0.111 93
4.6469998 -1.461 0.111 92
4.6389999 -1.488 0.111 93
4.6350002 -1.517 0.112 94
4.632 -1.546 0.112 94
4.6259999 -1.575 0.112 94
4.6110001 -1.6 0.112 95
4.6090002 -1.63 0.112 97
4.6059999 -1.66 0.113 99
4.592 -1.686 0.112 100
4.5939999 -1.717 0.113 100
4.5710001 -1.74 0.113 102
4.5710001 -1.771 0.113 103
4.5609999 -1.799 0.113 104
4.5599999 -1.83 0.113 105
4.5450001 -1.8559999 0.113 108
4.546 -1.888 0.114 109
4.5300002 -1.913 0.114 112
4.5180001 -1.9400001 0.114 113
4.5089998 -1.969 0.114 116
4.5 -1.997 0.114 116
4.4829998 -2.0220001 0.114 118
4.4699998 -2.049 0.114 120
4.46 -2.0769999 0.114 123
4.4499998 -2.105 0.114 125
4.4380002 -2.1329999 0.114 128
4.4239998 -2.1600001 0.114 129
4.4159999 -2.1889999 0.115 132
4.408 -2.2190001 0.115 132
4.401 -2.2490001 0.115 136
4.388 -2.276 0.115 138
4.3709998 -2.302 0.115 141
4.3579998 -2.329 0.115 144
4.3379998 -2.3529999 0.115 145
4.3249998 -2.3800001 0.115 148
4.3109999 -2.4070001 0.115 152
4.336 2.447 0.07 105
4.3280001 2.408 0.07 100
4.369 2.3959999 0.07 105
4.3979998 2.3770001 0.071000002 105
4.4039998 2.345 0.071000002 104
4.4200001 2.319 0.071000002 105
4.4460001 2.2980001 0.071000002 106
4.4530001 2.267 0.071000002 106
4.4689999 2.2409999 0.071000002 103
4.5110002 2.2279999 0.071999997 106
4.5229998 2.2 0.071999997 104
4.546 2.177 0.071999997 104
4.5799999 2.1600001 0.072999999 109
4.5900002 2.1300001 0.072999999 109
-0.0070000002 -0.0020000001 -0.0040000002 107
-0.0080000004 -0.003 -0.0040000002 107
0 0 -0.0040000002 103
-0.0040000002 -0.001 -0.0040000002 103
4.6599998 1.995 0.074000001 102
0.001 0.001 -0.0040000002 100
0.0020000001 0.001 -0.0040000002 97
4.6950002 1.911 0.074000001 97
-0.003 -0.001 -0.0040000002 96
4.7189999 1.8559999 0.074000001 95
-0.0020000001 0 -0.0040000002 93
4.7379999 1.798 0.075000003 92
-0.0049999999 -0.0020000001 -0.0040000002 89
0 0 -0.0040000002 88
0 0 -0.0040000002 87
0.003 0.001 -0.0040000002 85
0.0089999996 0.0020000001 -0.0040000002 84
0.014 0.0040000002 -0.0040000002 84
0.011 0.003 -0.0040000002 83
0.014 0.0040000002 -0.0040000002 82
0.0040000002 0.001 -0.0040000002 81
0.012 0.003 -0.0040000002 79
0.012 0.003 -0.0040000002 78
0.0070000002 0.001 -0.0040000002 78
0.012 0.0020000001 -0.0040000002 77
0.015 0.003 -0.0040000002 77
0.013 0.003 -0.0040000002 76
0.017999999 0.0040000002 -0.0040000002 75
0.017999999 0.0040000002 -0.0040000002 74
0.013 0.0020000001 -0.0040000002 72
0.017000001 0.003 -0.0040000002 73
0.029999999 0.0060000001 -0.003 75
0.114 0.026000001 -0.0020000001 103
0.133 0.029999999 -0.0020000001 113
0.050000001 0.0099999998 -0.003 79
0.021 0.003 -0.003 70
0.033 0.0060000001 -0.003 68
0.024 0.003 -0.003 69
0.018999999 0.0020000001 -0.0040000002 69
0.037 0.0060000001 -0.003 69
0.037 0.0049999999 -0.003 68
0.045000002 0.0070000002 -0.003 70
0.039000001 0.0049999999 -0.003 66
0.039999999 0.0049999999 -0.003 64
0.048 0.0060000001 -0.003 62
0.048 0.0060000001 -0.003 61
0.046 0.0049999999 -0.003 61
0.057 0.0070000002 -0.003 60
0.066 0.0080000004 -0.003 60
0.059 0.0060000001 -0.003 59
0.056000002 0.0049999999 -0.003 60
0.048999999 0.0040000002 -0.003 65
0.041999999 0.003 -0.003 72
0.034000002 0.0020000001 -0.003 72
0.017999999 0 -0.0040000002 71
0.0060000001 -0.001 -0.0040000002 70
0.017999999 0 -0.0040000002 69
0.027000001 0 -0.003 65
0.0049999999 -0.001 -0.0040000002 69
5.0430002 0.43099999 0.079999998 67
4.9759998 0.396 0.079000004 52
4.4660001 0.33000001 0.071000002 22
4.79 0.32699999 0.075999998 34
5.0300002 0.31400001 0.079999998 68
5.0380001 0.28600001 0.079999998 72
4.9809999 0.25400001 0.079999998 71
5.0240002 0.228 0.079999998 93
0.086999997 0 -0.0020000001 147
0.17200001 0.003 -0.001 192
0.124 0 -0.0020000001 158
5.0419998 0.114 0.081 97
4.8569999 0.082000002 0.078000002 69
4.8709998 0.055 0.078000002 66
4.895 0.027000001 0.079000004 67
4.8940001 0 0.079000004 67
4.869 -0.027000001 0.079000004 66
4.8150001 -0.054000001 0.078000002 65
4.8010001 -0.081 0.078000002 64
4.8189998 -0.109 0.078000002 64
4.849 -0.13699999 0.079000004 64
4.895 -0.16599999 0.079999998 63
4.9200001 -0.19499999 0.079999998 61
4.98 -0.226 0.081 55
5.0240002 -0.25600001 0.082000002 54
4.908 -0.27900001 0.079999998 62
4.8899999 -0.30599999 0.079999998 66
4.9070001 -0.33500001 0.081 65
4.8899999 -0.361 0.079999998 65
4.888 -0.389 0.081 63
4.8850002 -0.417 0.081 67
4.8979998 -0.44600001 0.081 75
4.9330001 -0.47799999 0.082000002 79
4.9299998 -0.50599998 0.082000002 78
4.8699999 -0.528 0.081 78
4.848 -0.55400002 0.081 79
4.842 -0.58099997 0.081 78
4.835 -0.60799998 0.081 78
4.8390002 -0.63700002 0.081 78
4.8709998 -0.66900003 0.082000002 77
4.8730001 -0.69800001 0.082000002 77
4.8239999 -0.71899998 0.081 79
4.7950001 -0.74299997 0.081 79
4.8060002 -0.773 0.081 80
4.8130002 -0.80299997 0.082000002 80
4.7940001 -0.82800001 0.081 79
4.7719998 -0.852 0.081 80
4.7620001 -0.87900001 0.081 80
4.7389998 -0.903 0.081 82
4.7160001 -0.92699999 0.081 83
4.7259998 -0.95700002 0.081 83
4.7379999 -0.98799998 0.082000002 84
4.7420001 -1.017 0.082000002 84
4.7319999 -1.044 0.082000002 85
4.7220001 -1.0700001 0.082000002 86
4.704 -1.095 0.082000002 85
4.7020001 -1.123 0.082000002 86
4.6960001 -1.151 0.082000002 86
4.7059999 -1.182 0.082000002 88
4.7020001 -1.21 0.082999997 87
4.704 -1.24 0.082999997 88
4.7020001 -1.2690001 0.082999997 89
4.711 -1.301 0.082999997 89
4.704 -1.3279999 0.083999999 90
4.6849999 -1.353 0.082999997 91
4.6810002 -1.381 0.083999999 91
4.677 -1.41 0.083999999 92
4.665 -1.436 0.083999999 92
4.6620002 -1.465 0.083999999 93
4.658 -1.494 0.083999999 93
4.638 -1.518 0.083999999 94
4.6360002 -1.548 0.083999999 94
4.6259999 -1.575 0.083999999 95
4.6269999 -1.605 0.085000001 96
4.6230001 -1.635 0.085000001 97
4.6069999 -1.66 0.085000001 98
4.5960002 -1.687 0.085000001 99
4.5900002 -1.716 0.085000001 100
4.5780001 -1.743 0.085000001 102
4.5760002 -1.773 0.085000001 103
4.5689998 -1.802 0.085000001 105
4.5560002 -1.8279999 0.085000001 107
4.546 -1.8559999 0.086000003 107
4.5370002 -1.8839999 0.086000003 109
4.5209999 -1.909 0.086000003 111
4.5240002 -1.943 0.086000003 113
4.5149999 -1.971 0.086000003 114
4.5050001 -1.999 0.086000003 116
4.4899998 -2.0250001 0.086000003 118
4.474 -2.0510001 0.086000003 120
4.46 -2.0769999 0.086000003 123
4.46 -2.1099999 0.086999997 126
4.4429998 -2.135 0.086999997 126
4.4349999 -2.165 0.086999997 130
4.421 -2.191 0.086999997 131
4.4089999 -2.2190001 0.086999997 133
4.3979998 -2.247 0.086999997 135
4.3839998 -2.2739999 0.086999997 137
4.3699999 -2.3010001 0.086999997 142
4.3600001 -2.3299999 0.086999997 142
4.3460002 -2.3570001 0.088 146
4.3309999 -2.3829999 0.088 148
4.316 -2.4100001 0.088 152
4.336 2.447 0.041999999 106
4.3610001 2.4260001 0.041999999 112
4.3920002 2.408 0.043000001 114
4.395 2.375 0.043000001 109
4.4130001 2.349 0.043000001 109
4.428 2.323 0.043000001 108
4.4109998 2.28 0.043000001 102
4.4219999 2.2509999 0.043000001 101
4.4829998 2.2479999 0.043000001 107
4.5089998 2.227 0.044 108
4.5229998 2.2 0.044 107
4.5619998 2.1849999 0.044 114
4.586 2.1619999 0.044 113
4.5960002 2.1329999 0.044 111
-0.0020000001 0 -0.0040000002 109
-0.001 0 -0.0040000002 108
-0.0060000001 -0.0020000001 -0.0040000002 104
-0.0070000002 -0.0020000001 -0.0040000002 100
0.0020000001 0.001 -0.0040000002 100
0.0060000001 0.003 -0.0040000002 99
0.0040000002 0.0020000001 -0.0040000002 98
0.0040000002 0.0020000001 -0.0040000002 95
0.0060000001 0.0020000001 -0.0040000002 95
0.011 0.0040000002 -0.0040000002 93
0.0040000002 0.0020000001 -0.0040000002 92
0.0089999996 0.003 -0.0040000002 90
0.0049999999 0.0020000001 -0.0040000002 89
0.0049999999 0.0020000001 -0.0040000002 87
0.0020000001 0 -0.0040000002 87
0.015 0.0049999999 -0.0040000002 86
0.0080000004 0.0020000001 -0.0040000002 85
0.013 0.0040000002 -0.0040000002 84
0.0080000004 0.0020000001 -0.0040000002 82
0.021 0.0060000001 -0.0040000002 80
0.014 0.0040000002 -0.0040000002 80
0.024 0.0070000002 -0.0040000002 79
0.017000001 0.0040000002 -0.0040000002 79
0.017000001 0.0040000002 -0.0040000002 79
0.021 0.0049999999 -0.0040000002 77
0.025 0.0060000001 -0.0040000002 78
0.014 0.003 -0.0040000002 75
0.028000001 0.0070000002 -0.0040000002 75
0.024 0.0049999999 -0.0040000002 74
0.024 0.0049999999 -0.0040000002 73
0.029999999 0.0060000001 -0.0040000002 72
0.029999999 0.0060000001 -0.0040000002 74
0.098999999 0.023 -0.003 97
0.126 0.028999999 -0.003 110
0.061999999 0.013 -0.003 81
0.041000001 0.0080000004 -0.003 73
0.027000001 0.0040000002 -0.0040000002 73
0.037999999 0.0060000001 -0.003 72
0.039999999 0.0070000002 -0.003 72
0.043000001 0.0070000002 -0.003 72
0.043000001 0.0070000002 -0.003 72
0.037 0.0049999999 -0.003 72
0.046999998 0.0070000002 -0.003 69
0.048 0.0070000002 -0.003 67
0.067000002 0.0099999998 -0.003 59
0.079000004 0.011 -0.003 53
0.074000001 0.0099999998 -0.003 54
0.086999997 0.011 -0.003 53
0.072999999 0.0089999996 -0.003 54
0.075000003 0.0080000004 -0.003 56
0.074000001 0.0080000004 -0.003 57
0.074000001 0.0070000002 -0.003 55
0.078000002 0.0070000002 -0.003 54
0.11 0.011 -0.003 42
0.163 0.016000001 -0.0020000001 36
0.20100001 0.018999999 -0.0020000001 31
0.257 0.024 -0.001 24
0.50300002 0.046 0.001 16
0.259 0.021 -0.001 20
0.20999999 0.015 -0.0020000001 25
0.162 0.0099999998 -0.0020000001 28
0.030999999 0 -0.0040000002 12
0.077 0.0020000001 -0.003 19
0.07 0.001 -0.003 39
0.12 0.0040000002 -0.003 46
0.139 0.0040000002 -0.0020000001 50
0.18799999 0.0049999999 -0.0020000001 103
0.185 0.0040000002 -0.0020000001 176
0.189 0.003 -0.0020000001 187
0.20299999 0.003 -0.0020000001 107
0.49399999 0.0080000004 0.001 26
1.311 0.02 0.0099999998 11
1.289 0.012 0.0099999998 11
0.97399998 0.003 0.0060000001 13
0.61699998 -0.0020000001 0.0020000001 18
0.59600002 -0.0060000001 0.0020000001 19
1.013 -0.014 0.0070000002 15
1.49 -0.027000001 0.012 15
1.405 -0.034000002 0.011 14
0.88 -0.027000001 0.0049999999 15
0.77100003 -0.028999999 0.0040000002 17
0.80599999 -0.034000002 0.0040000002 20
0.76599997 -0.037 0.0040000002 21
0.77600002 -0.041999999 0.0040000002 20
0.60600001 -0.037 0.0020000001 19
0.60500002 -0.041000001 0.0020000001 21
0.61900002 -0.045000002 0.0020000001 20
0.69599998 -0.054000001 0.003 20
0.97799999 -0.081 0.0070000002 17
0.31799999 -0.029999999 0 27
4.9980001 -0.45500001 0.054000001 61
4.9619999 -0.48100001 0.054000001 72
4.9590001 -0.509 0.054000001 71
4.908 -0.53200001 0.054000001 69
4.8909998 -0.55900002 0.054000001 69
4.8800001 -0.58600003 0.054000001 69
4.8769999 -0.61299998 0.054000001 71
4.8870001 -0.64300001 0.054000001 72
4.9720001 -0.68300003 0.055 73
4.9889998 -0.71499997 0.055 75
4.9299998 -0.73500001 0.055 71
4.8249998 -0.74800003 0.054000001 79
4.7969999 -0.77200001 0.054000001 80
4.796 -0.80000001 0.054000001 80
4.7709999 -0.824 0.054000001 80
4.756 -0.84899998 0.054000001 82
4.7529998 -0.87699997 0.054000001 81
4.763 -0.90700001 0.054000001 84
4.757 -0.935 0.054000001 82
4.75 -0.96200001 0.054000001 84
4.7420001 -0.98900002 0.054000001 85
4.7360001 -1.016 0.054000001 85
4.724 -1.0420001 0.054000001 84
4.7160001 -1.069 0.054000001 85
4.724 -1.1 0.055 85
4.7340002 -1.131 0.055 87
4.7410002 -1.1619999 0.055 87
4.7280002 -1.188 0.055 88
4.7210002 -1.215 0.055 88
4.7309999 -1.247 0.056000002 88
4.7119999 -1.272 0.056000002 90
4.711 -1.301 0.056000002 91
4.711 -1.33 0.056000002 90
4.7020001 -1.358 0.056000002 92
4.6900001 -1.3839999 0.056000002 91
4.684 -1.4119999 0.056000002 93
4.678 -1.4400001 0.056000002 94
4.6659999 -1.467 0.056000002 96
4.6560001 -1.493 0.056000002 93
4.6560001 -1.524 0.057 95
4.645 -1.551 0.057 94
4.6329999 -1.577 0.057 95
4.6230001 -1.604 0.057 97
4.6149998 -1.632 0.057 97
4.612 -1.6619999 0.057 98
4.6020002 -1.689 0.057 100
4.5900002 -1.716 0.057 101
4.5809999 -1.743 0.057 102
4.5710001 -1.771 0.057 104
4.566 -1.801 0.057999998 106
4.5570002 -1.829 0.057999998 106
4.546 -1.8559999 0.057999998 108
4.539 -1.885 0.057999998 110
4.5310001 -1.913 0.057999998 111
4.5229998 -1.942 0.057999998 114
4.5079999 -1.9680001 0.057999998 115
4.5019999 -1.998 0.057999998 116
4.494 -2.027 0.059 120
4.4759998 -2.052 0.059 120
4.4710002 -2.082 0.059 122
4.4530001 -2.1070001 0.059 125
4.4419999 -2.1340001 0.059 126
4.4260001 -2.1600001 0.059 129
4.4180002 -2.1900001 0.059 131
4.4089999 -2.2190001 0.059 132
4.4000001 -2.2479999 0.059 136
4.3870001 -2.2750001 0.059999999 137
4.368 -2.3 0.059999999 140
4.3629999 -2.3310001 0.059999999 143
4.3439999 -2.3559999 0.059999999 146
4.3319998 -2.3840001 0.059999999 148
4.3169999 -2.4100001 0.059999999 149
4.342 2.45 0.014 109
4.3540001 2.4219999 0.014 109
4.3720002 2.3970001 0.014 111
4.3930001 2.3740001 0.015 111
4.4169998 2.3510001 0.015 110
4.4000001 2.3080001 0.015 104
4.414 2.2809999 0.015 101
4.4580002 2.2690001 0.015 102
4.467 2.24 0.015 103
4.4580002 2.2019999 0.015 108
4.4780002 2.178 0.015 109
4.4970002 2.1530001 0.015 105
4.5240002 2.1329999 0.016000001 102
4.5419998 2.108 0.016000001 101
4.5669999 2.086 0.016000001 97
4.599 2.0669999 0.016000001 101
0.0080000004 0.0040000002 -0.0040000002 105
0.028000001 0.012 -0.0040000002 109
0.030999999 0.014 -0.0040000002 113
4.6739998 1.967 0.017000001 107
4.6570001 1.927 0.017000001 89
4.6560001 1.895 0.017000001 79
4.6599998 1.864 0.017000001 77
4.6570001 1.831 0.017000001 75
4.6760001 1.806 0.017000001 71
4.6869998 1.779 0.017000001 71
4.6919999 1.749 0.017000001 68
4.7090001 1.723 0.017000001 66
4.7259998 1.698 0.017000001 64
4.7249999 1.666 0.017999999 62
4.7329998 1.638 0.017999999 59
4.7399998 1.609 0.017999999 58
4.737 1.577 0.017999999 55
4.7649999 1.5549999 0.017999999 54
4.7680001 1.525 0.017999999 51
4.7670002 1.494 0.017999999 50
4.7800002 1.4680001 0.017999999 48
4.7839999 1.438 0.017999999 47
4.7950001 1.411 0.017999999 45
4.8099999 1.385 0.018999999 44
4.809 1.355 0.018999999 41
4.8340001 1.331 0.018999999 40
4.8319998 1.301 0.018999999 39
4.8410001 1.273 0.018999999 38
4.8670001 1.25 0.018999999 37
4.8899999 1.226 0.018999999 41
0.096000001 0.022 -0.003 81
0.12800001 0.028999999 -0.003 109
0.064999998 0.014 -0.0040000002 72
0.021 0.003 -0.0040000002 55
0.016000001 0.0020000001 -0.0040000002 53
0.015 0.0020000001 -0.0040000002 52
0.029999999 0.0049999999 -0.0040000002 50
0.033 0.0049999999 -0.0040000002 51
0.035 0.0049999999 -0.0040000002 54
0.046 0.0070000002 -0.0040000002 56
0.045000002 0.0060000001 -0.0040000002 52
0.083999999 0.013 -0.003 41
0.14300001 0.023 -0.003 28
0.226 0.035999998 -0.003 21
0.32699999 0.050999999 -0.0020000001 17
0.29800001 0.044 -0.0020000001 17
0.245 0.034000002 -0.003 20
0.182 0.024 -0.003 22
0.25299999 0.032000002 -0.003 22
0.28299999 0.035 -0.0020000001 18
0.28600001 0.034000002 -0.0020000001 22
1.345 0.15899999 0.0020000001 10
2.0380001 0.23100001 0.0060000001 17
1.974 0.212 0.0060000001 19
2.026 0.206 0.0060000001 22
2.0420001 0.19599999 0.0060000001 22
1.974 0.178 0.0060000001 21
1.6210001 0.13600001 0.0040000002 14
1.192 0.093000002 0.0020000001 11
1.013 0.071999997 0.001 12
0.86900002 0.057 0 13
0.61900002 0.035999998 0 18
0.51599997 0.027000001 -0.001 24
0.29899999 0.012 -0.0020000001 63
0.233 0.0080000004 -0.003 137
0.191 0.0040000002 -0.003 209
0.214 0.0040000002 -0.003 150
0.42699999 0.0089999996 -0.0020000001 55
1.987 0.043000001 0.0060000001 32
2.1070001 0.034000002 0.0070000002 39
2.063 0.021 0.0070000002 38
1.9630001 0.0089999996 0.0060000001 33
1.544 -0.0020000001 0.0040000002 22
1.3660001 -0.0099999998 0.003 20
1.603 -0.02 0.0040000002 25
1.9680001 -0.035 0.0070000002 33
1.885 -0.044 0.0060000001 29
1.507 -0.045000002 0.0040000002 19
1.256 -0.045000002 0.0020000001 18
1.176 -0.048999999 0.0020000001 18
1.0599999 -0.050000001 0.001 18
1.062 -0.057 0.001 19
1.062 -0.063000001 0.001 19
1.056 -0.068999998 0.001 20
1.03 -0.072999999 0.001 20
1.03 -0.079000004 0.001 21
1.5 -0.122 0.0040000002 22
0.77499998 -0.068999998 0 23
0.139 -0.016000001 -0.003 43
0.20900001 -0.024 -0.003 34
0.32100001 -0.035999998 -0.0020000001 27
1.686 -0.185 0.0060000001 16
0.95300001 -0.112 0.001 14
0.30899999 -0.039999999 -0.0020000001 25
0.25999999 -0.035999998 -0.0020000001 31
0.12 -0.02 -0.003 38
0.055 -0.011 -0.0040000002 47
5.0190001 -0.71899998 0.027000001 64
-0.0040000002 -0.003 -0.0040000002 71
4.947 -0.76700002 0.027000001 73
4.8330002 -0.778 0.026000001 80
4.7989998 -0.80000001 0.026000001 81
4.7810001 -0.82599998 0.026000001 80
4.7839999 -0.85500002 0.026000001 82
4.7719998 -0.88099998 0.026000001 82
4.77 -0.90899998 0.026000001 83
4.776 -0.93800002 0.027000001 83
4.7750001 -0.96700001 0.027000001 82
4.7729998 -0.995 0.027000001 83
4.7579999 -1.021 0.027000001 84
4.7600002 -1.05 0.027000001 85
4.7639999 -1.08 0.027000001 86
4.7649999 -1.109 0.027000001 86
4.7540002 -1.136 0.027000001 87
4.756 -1.165 0.028000001 87
4.737 -1.1900001 0.028000001 89
4.7290001 -1.217 0.028000001 88
4.7309999 -1.247 0.028000001 90
4.7270002 -1.276 0.028000001 90
4.7189999 -1.303 0.028000001 90
4.7189999 -1.3329999 0.028000001 91
4.7199998 -1.363 0.028000001 91
4.6950002 -1.385 0.028000001 93
4.6950002 -1.415 0.028000001 95
4.6849999 -1.442 0.028999999 94
4.678 -1.47 0.028999999 94
4.6609998 -1.495 0.028999999 95
4.6570001 -1.524 0.028999999 97
4.6389999 -1.549 0.028999999 96
4.631 -1.577 0.028999999 97
4.632 -1.607 0.028999999 97
4.6170001 -1.633 0.028999999 99
4.6079998 -1.661 0.028999999 99
4.6030002 -1.6900001 0.028999999 100
4.5929999 -1.717 0.029999999 102
4.5780001 -1.742 0.029999999 103
4.5749998 -1.773 0.029999999 104
4.5669999 -1.801 0.029999999 105
4.5619998 -1.831 0.029999999 106
4.5479999 -1.857 0.029999999 107
4.5419998 -1.886 0.029999999 110
4.5250001 -1.911 0.029999999 113
4.5209999 -1.941 0.029999999 112
4.507 -1.9680001 0.030999999 116
4.4970002 -1.9960001 0.030999999 117
4.4949999 -2.027 0.030999999 118
4.4840002 -2.0550001 0.030999999 120
4.461 -2.0780001 0.030999999 123
4.4489999 -2.105 0.030999999 126
4.4380002 -2.132 0.030999999 127
4.4310002 -2.1630001 0.030999999 129
4.4190001 -2.1900001 0.030999999 133
4.4089999 -2.2190001 0.030999999 133
4.4039998 -2.25 0.032000002 135
4.381 -2.2720001 0.032000002 137
4.368 -2.3 0.032000002 141
4.3600001 -2.3299999 0.032000002 143
4.3439999 -2.355 0.032000002 146
4.329 -2.382 0.032000002 147
4.3179998 -2.411 0.032000002 152
4.2979999 2.425 -0.013 98
4.3150001 2.4000001 -0.013 101
4.3909998 2.4070001 -0.013 113
4.421 2.388 -0.013 116
4.4520001 2.3699999 -0.012 118
4.4689999 2.3440001 -0.012 114
4.4699998 2.3099999 -0.012 113
4.4450002 2.263 -0.012 105
4.3850002 2.1989999 -0.012 87
4.4190001 2.1819999 -0.012 90
4.4299998 2.154 -0.012 91
4.4429998 2.1270001 -0.012 89
4.5170002 2.1289999 -0.012 93
-0.003 0 -0.0040000002 109
0.064000003 0.029999999 -0.0040000002 129
0.116 0.052000001 -0.0040000002 142
0.13 0.057999998 -0.0040000002 143
0.124 0.054000001 -0.0040000002 136
0.106 0.046 -0.0040000002 124
0.071000002 0.029999999 -0.0040000002 119
0.0070000002 0.003 -0.0040000002 104
4.5640001 1.857 -0.011 66
4.5409999 1.816 -0.0099999998 57
4.5209999 1.777 -0.0099999998 55
4.5539999 1.7589999 -0.0099999998 55
4.5739999 1.7359999 -0.0099999998 54
4.5900002 1.711 -0.0099999998 52
4.6269999 1.693 -0.0099999998 50
4.6240001 1.661 -0.0099999998 49
4.638 1.635 -0.0099999998 47
4.6490002 1.609 -0.0099999998 47
4.6630001 1.5829999 -0.0099999998 46
4.6500001 1.548 -0.0089999996 43
4.6900001 1.53 -0.0089999996 42
4.6950002 1.502 -0.0089999996 42
4.7150002 1.478 -0.0089999996 40
4.7140002 1.447 -0.0089999996 40
4.7179999 1.418 -0.0089999996 39
4.7259998 1.391 -0.0089999996 38
4.7490001 1.368 -0.0089999996 36
4.77 1.344 -0.0089999996 34
4.776 1.3150001 -0.0089999996 34
4.8080001 1.294 -0.0080000004 33
4.8330002 1.271 -0.0080000004 34
4.8559999 1.247 -0.0080000004 36
4.9039998 1.229 -0.0080000004 42
0.072999999 0.017000001 -0.0040000002 76
0.146 0.033 -0.0040000002 112
0.102 0.022 -0.0040000002 80
0.0049999999 0 -0.0040000002 47
-0.0020000001 -0.001 -0.0040000002 42
4.9580002 1.061 -0.0080000004 39
0.0060000001 0 -0.0040000002 41
0.028999999 0.0040000002 -0.0040000002 49
0.037 0.0049999999 -0.0040000002 52
0.032000002 0.0040000002 -0.0040000002 50
0.048999999 0.0070000002 -0.0040000002 45
0.086000003 0.013 -0.0040000002 34
0.20299999 0.033 -0.0040000002 19
0.45300001 0.074000001 -0.0040000002 11
0.32699999 0.050999999 -0.0040000002 11
0.244 0.035999998 -0.0040000002 14
0.24600001 0.035 -0.0040000002 16
0.31 0.041999999 -0.0040000002 16
0.40799999 0.054000001 -0.0040000002 12
0.67299998 0.086000003 -0.0040000002 11
0.66100001 0.081 -0.0040000002 14
1.993 0.237 -0.0049999999 16
2.046 0.23199999 -0.0049999999 19
1.987 0.214 -0.0049999999 19
1.994 0.20299999 -0.0049999999 20
2.033 0.19499999 -0.0049999999 21
1.89 0.17 -0.0040000002 19
1.452 0.122 -0.0040000002 14
0.90499997 0.07 -0.0040000002 11
0.79500002 0.056000002 -0.0040000002 14
0.875 0.057 -0.0040000002 13
1.015 0.061000001 -0.0040000002 13
0.461 0.023 -0.0040000002 32
0.25 0.0099999998 -0.0040000002 103
0.2 0.0060000001 -0.0040000002 188
0.199 0.0049999999 -0.0040000002 198
0.26199999 0.0060000001 -0.0040000002 104
1.0650001 0.027000001 -0.0040000002 23
2.0969999 0.045000002 -0.0040000002 36
2.109 0.034000002 -0.0040000002 37
2.082 0.021 -0.0040000002 36
2.0309999 0.0089999996 -0.0040000002 34
1.698 -0.0020000001 -0.0040000002 23
1.322 -0.0089999996 -0.0040000002 20
1.444 -0.017999999 -0.0040000002 21
1.8609999 -0.033 -0.0040000002 30
1.7970001 -0.043000001 -0.0040000002 28
1.401 -0.041999999 -0.0040000002 19
1.199 -0.043000001 -0.0040000002 17
1.098 -0.046 -0.0040000002 19
1.0700001 -0.050999999 -0.0040000002 19
1.051 -0.056000002 -0.0040000002 19
1.011 -0.059999999 -0.0040000002 19
1.002 -0.064999998 -0.0040000002 21
0.98299998 -0.07 -0.0040000002 21
1.067 -0.081 -0.0040000002 21
1.563 -0.127 -0.003 24
0.77700001 -0.068999998 -0.0040000002 21
0.177 -0.018999999 -0.0040000002 44
0.211 -0.024 -0.0040000002 38
0.28999999 -0.033 -0.0040000002 31
1.173 -0.13 -0.003 15
0.667 -0.079000004 -0.0040000002 19
0.257 -0.034000002 -0.0040000002 32
0.222 -0.032000002 -0.0040000002 37
0.184 -0.028000001 -0.0040000002 42
0.082999997 -0.015 -0.0040000002 48
0.013 -0.0060000001 -0.0040000002 62
-0.0040000002 -0.003 -0.0040000002 76
0.0049999999 -0.0049999999 -0.0040000002 70
4.934 -0.79400003 -0.001 78
4.8309999 -0.80599999 -0.001 80
4.8109999 -0.83099997 0 82
4.8130002 -0.86000001 0 83
4.829 -0.89099997 0 83
4.8319998 -0.921 0 81
4.842 -0.95200002 0 83
4.862 -0.98500001 0 83
4.8699999 -1.015 0 84
4.8610001 -1.043 0 84
4.8530002 -1.071 0 85
4.8649998 -1.103 0 86
4.8579998 -1.131 0 86
4.8530002 -1.159 0 87
4.8379998 -1.1849999 0 86
4.8200002 -1.211 0 88
4.7969999 -1.235 0 88
4.7849998 -1.261 0 88
4.777 -1.289 0 88
4.783 -1.321 0 90
4.803 -1.3559999 0 90
4.7880001 -1.382 0.001 91
4.7480001 -1.401 0.001 90
4.7540002 -1.433 0.001 90
4.724 -1.454 0.001 95
4.6820002 -1.472 0.001 94
4.664 -1.4960001 0.001 96
4.6469998 -1.521 0.001 98
4.6479998 -1.552 0.001 96
4.6199999 -1.573 0.001 97
4.625 -1.605 0.001 98
4.6199999 -1.6339999 0.0020000001 99
4.6020002 -1.658 0.0020000001 99
4.599 -1.688 0.0020000001 101
4.5939999 -1.717 0.0020000001 100
4.5840001 -1.745 0.0020000001 104
4.573 -1.772 0.0020000001 104
4.5650001 -1.8 0.0020000001 105
4.5549998 -1.8279999 0.0020000001 107
4.552 -1.858 0.0020000001 108
4.5419998 -1.886 0.0020000001 111
4.5229998 -1.91 0.003 111
4.5240002 -1.943 0.003 113
4.5110002 -1.969 0.003 115
4.5019999 -1.998 0.003 116
4.4889998 -2.0250001 0.003 119
4.48 -2.053 0.003 121
4.4749999 -2.0840001 0.003 122
4.46 -2.1099999 0.003 124
4.4460001 -2.1370001 0.003 128
4.4380002 -2.1659999 0.003 129
4.421 -2.191 0.0040000002 132
4.4099998 -2.22 0.0040000002 132
4.4039998 -2.25 0.0040000002 136
4.3860002 -2.2750001 0.0040000002 137
4.3720002 -2.302 0.0040000002 141
4.362 -2.3310001 0.0040000002 143
4.3499999 -2.359 0.0040000002 145
4.3319998 -2.3840001 0.0040000002 147
4.3200002 -2.4119999 0.0040000002 151
4.2389998 2.392 -0.039999999 82
4.2930002 2.388 -0.039999999 92
4.4099998 2.4170001 -0.041000001 116
0.0080000004 0.0060000001 -0.0040000002 129
0.045000002 0.025 -0.0040000002 138
0.022 0.013 -0.0040000002 133
0.011 0.0070000002 -0.0040000002 129
4.4780002 2.279 -0.039999999 111
4.3909998 2.2019999 -0.039000001 88
4.5159998 2.23 -0.039999999 109
0.057 0.028999999 -0.0040000002 132
0.12 0.057999998 -0.0049999999 159
0.154 0.072999999 -0.0049999999 174
0.152 0.071000002 -0.0049999999 167
0.111 0.050999999 -0.0049999999 145
0.050000001 0.023 -0.0040000002 120
4.618 2.0420001 -0.039999999 95
4.5770001 1.9910001 -0.039000001 81
4.5619998 1.952 -0.039000001 74
-0.0070000002 -0.0020000001 -0.0040000002 95
0.067000002 0.028000001 -0.0049999999 119
4.6420002 1.8890001 -0.039000001 80
4.539 1.8150001 -0.037999999 59
4.5409999 1.785 -0.037999999 56
4.5580001 1.76 -0.037999999 55
4.5780001 1.737 -0.037999999 55
4.592 1.711 -0.037999999 54
4.6139998 1.688 -0.037999999 52
4.6269999 1.6619999 -0.037999999 50
4.6259999 1.631 -0.037 49
4.6589999 1.612 -0.037999999 48
4.6620002 1.582 -0.037 47
4.6739998 1.556 -0.037 45
4.6919999 1.531 -0.037 44
4.684 1.498 -0.037 43
4.7030001 1.474 -0.037 42
4.7199998 1.449 -0.037 41
4.7389998 1.425 -0.037 41
4.7490001 1.397 -0.037 38
4.75 1.368 -0.037 39
4.7740002 1.345 -0.037 37
4.7950001 1.321 -0.037 35
4.7919998 1.29 -0.037 35
4.8270001 1.2690001 -0.037 39
4.8959999 1.257 -0.037 48
-0.001 -0.001 -0.0040000002 57
0.029999999 0.0060000001 -0.0040000002 66
0.14 0.032000002 -0.0049999999 106
0.113 0.025 -0.0049999999 91
4.9439998 1.118 -0.037 42
4.9349999 1.086 -0.035999998 34
-0.0049999999 -0.0020000001 -0.0040000002 41
0.018999999 0.0020000001 -0.0040000002 51
0.0049999999 0 -0.0040000002 53
0.014 0.001 -0.0040000002 48
0.014 0.001 -0.0040000002 39
0.017000001 0.001 -0.0040000002 32
0.052000001 0.0070000002 -0.0040000002 25
0.075000003 0.011 -0.0049999999 16
0.103 0.015 -0.0049999999 18
0.1 0.014 -0.0049999999 23
0.1 0.013 -0.0049999999 22
0.152 0.02 -0.0049999999 20
0.257 0.035 -0.0060000001 15
0.51300001 0.068000004 -0.0070000002 8
1.1720001 0.152 -0.011 8
0.76300001 0.093999997 -0.0089999996 13
1.862 0.222 -0.015 12
1.863 0.211 -0.015 14
1.818 0.19499999 -0.015 14
1.874 0.19 -0.015 14
1.854 0.178 -0.015 15
1.701 0.153 -0.014 13
1.015 0.083999999 -0.0099999998 11
0.56199998 0.041999999 -0.0070000002 16
0.54699999 0.037999999 -0.0070000002 16
0.71799999 0.046 -0.0080000004 13
0.764 0.045000002 -0.0080000004 17
0.249 0.011 -0.0049999999 79
0.208 0.0080000004 -0.0049999999 160
0.18799999 0.0049999999 -0.0049999999 208
0.207 0.0049999999 -0.0049999999 151
0.338 0.0080000004 -0.0060000001 60
1.821 0.048999999 -0.014 20
2.0480001 0.044 -0.016000001 25
2.017 0.032000002 -0.015 25
2.03 0.021 -0.015 26
1.964 0.0089999996 -0.015 25
1.527 -0.0020000001 -0.013 16
1.0190001 -0.0080000004 -0.0099999998 16
1.045 -0.014 -0.0099999998 17
1.585 -0.028999999 -0.013 20
1.562 -0.037 -0.013 18
0.977 -0.029999999 -0.0089999996 15
0.79000002 -0.028999999 -0.0080000004 17
0.671 -0.028999999 -0.0080000004 18
0.67000002 -0.033 -0.0080000004 20
0.64399999 -0.035999998 -0.0080000004 21
0.66000003 -0.039999999 -0.0080000004 21
0.57200003 -0.039000001 -0.0070000002 22
0.60000002 -0.044 -0.0070000002 24
0.65600002 -0.050999999 -0.0080000004 24
1.4299999 -0.116 -0.012 22
0.57300001 -0.052000001 -0.0070000002 26
0.061000001 -0.0089999996 -0.0040000002 54
0.014 -0.0049999999 -0.0040000002 67
5.0450001 -0.51800001 -0.030999999 72
5.0279999 -0.54500002 -0.029999999 72
5.0180001 -0.57300001 -0.029999999 73
5.0339999 -0.60399997 -0.029999999 72
0 -0.0040000002 -0.0040000002 73
-0.0049999999 -0.003 -0.0040000002 75
4.994 -0.68699998 -0.029999999 69
4.934 -0.70700002 -0.028999999 69
4.9439998 -0.73799998 -0.028999999 74
4.9889998 -0.773 -0.028999999 73
-0.001 -0.0040000002 -0.0040000002 75
4.868 -0.81199998 -0.028999999 82
4.7979999 -0.829 -0.028000001 83
4.8829999 -0.87199998 -0.028999999 84
4.9720001 -0.91799998 -0.028999999 85
4.9650002 -0.94599998 -0.028999999 76
4.9710002 -0.977 -0.028999999 78
-0.0040000002 -0.003 -0.0040000002 80
0.0020000001 -0.0049999999 -0.0040000002 81
4.954 -1.063 -0.028000001 81
0 -0.0040000002 -0.0040000002 82
-0.0040000002 -0.0040000002 -0.0040000002 83
4.9400001 -1.15 -0.028000001 82
0.001 -0.0049999999 -0.0040000002 83
4.9159999 -1.205 -0.028000001 80
-0.0040000002 -0.0040000002 -0.0040000002 84
-0.0049999999 -0.003 -0.0040000002 85
0 -0.0049999999 -0.0040000002 88
0 -0.0049999999 -0.0040000002 88
0.016000001 -0.0089999996 -0.0040000002 90
0.0080000004 -0.0070000002 -0.0040000002 90
0.0080000004 -0.0080000004 -0.0040000002 90
4.789 -1.413 -0.027000001 73
4.8189998 -1.4529999 -0.027000001 83
4.77 -1.469 -0.026000001 94
4.717 -1.483 -0.026000001 97
4.6620002 -1.4960001 -0.026000001 95
4.6539998 -1.523 -0.026000001 97
4.638 -1.549 -0.026000001 97
4.6240001 -1.574 -0.025 98
4.6129999 -1.601 -0.025 99
4.6149998 -1.633 -0.025 100
4.6079998 -1.661 -0.025 100
4.5929999 -1.686 -0.025 101
4.5830002 -1.714 -0.025 102
4.5760002 -1.742 -0.025 103
4.566 -1.77 -0.025 103
4.5599999 -1.799 -0.025 106
4.559 -1.83 -0.025 107
4.5489998 -1.857 -0.024 110
4.5310001 -1.882 -0.024 111
4.5320001 -1.914 -0.024 112
4.5100002 -1.937 -0.024 113
4.513 -1.971 -0.024 116
4.5 -1.997 -0.024 116
4.4910002 -2.026 -0.024 117
4.48 -2.053 -0.024 120
4.467 -2.0799999 -0.024 124
4.454 -2.1070001 -0.024 125
4.4380002 -2.1329999 -0.023 127
4.4320002 -2.1630001 -0.023 131
4.4159999 -2.1889999 -0.023 131
4.408 -2.2179999 -0.023 133
4.3959999 -2.2460001 -0.023 137
4.3860002 -2.2750001 -0.023 137
4.3720002 -2.302 -0.023 141
4.3559999 -2.3280001 -0.023 142
4.3470001 -2.3570001 -0.023 145
4.3379998 -2.3870001 -0.022 149
4.3210001 -2.4130001 -0.022 151
4.204 2.372 -0.067000002 84
4.3639998 2.427 -0.068999998 102
0.106 0.059 -0.0060000001 162
0.071000002 0.039999999 -0.0049999999 152
0.029999999 0.017000001 -0.0049999999 139
0.039999999 0.022 -0.0049999999 144
0.153 0.079999998 -0.0060000001 192
0.25600001 0.131 -0.0080000004 297
0.26699999 0.13500001 -0.0080000004 306
0.26300001 0.131 -0.0080000004 292
0.214 0.105 -0.0070000002 229
0.132 0.064000003 -0.0060000001 172
0.045000002 0.022 -0.0049999999 134
4.573 2.122 -0.068000004 109
4.526 2.0669999 -0.067000002 94
4.5100002 2.027 -0.067000002 89
4.5180001 1.998 -0.067000002 87
4.5339999 1.972 -0.067000002 84
4.5510001 1.947 -0.067000002 83
4.6329999 1.95 -0.068000004 95
0.074000001 0.030999999 -0.0049999999 123
4.6799998 1.904 -0.068000004 96
4.592 1.837 -0.066 74
4.5960002 1.807 -0.066 72
4.6090002 1.78 -0.066 71
4.6350002 1.7589999 -0.066 70
4.645 1.7309999 -0.066 68
4.664 1.707 -0.066 68
4.677 1.6799999 -0.066 66
4.6859999 1.652 -0.066 65
4.6989999 1.626 -0.066 65
4.723 1.603 -0.066 65
4.7309999 1.575 -0.066 67
4.757 1.552 -0.066 70
4.757 1.522 -0.066 67
4.7659998 1.494 -0.066 66
4.7859998 1.469 -0.066 66
4.7930002 1.441 -0.066 67
4.8000002 1.4119999 -0.066 65
4.796 1.381 -0.064999998 61
4.809 1.354 -0.064999998 59
4.8189998 1.327 -0.064999998 57
4.836 1.301 -0.064999998 57
4.8769999 1.2819999 -0.066 61
4.8969998 1.257 -0.066 68
4.9029999 1.228 -0.066 68
4.908 1.2 -0.064999998 64
0.082000002 0.017999999 -0.0049999999 91
0.112 0.025 -0.0049999999 104
0.0099999998 0.001 -0.0040000002 67
4.928 1.084 -0.064999998 56
4.9530001 1.0599999 -0.064999998 66
4.961 1.0319999 -0.064999998 66
4.9520001 1.001 -0.064999998 62
4.9299998 0.96600002 -0.064000003 54
4.9250002 0.93599999 -0.064000003 51
4.9219999 0.90600002 -0.064000003 50
4.9369998 0.88 -0.064000003 48
4.9320002 0.85000002 -0.064000003 46
4.9359999 0.82099998 -0.064000003 47
4.9460001 0.79400003 -0.064000003 47
4.9289999 0.76200002 -0.063000001 46
4.9289999 0.73400003 -0.063000001 41
4.8979998 0.69999999 -0.061999999 34
4.8839998 0.67000002 -0.061999999 30
4.9850001 0.65499997 -0.063000001 26
0.066 0.0060000001 -0.0049999999 26
4.9089999 0.588 -0.061999999 27
4.914 0.56 -0.061999999 26
4.9499998 0.53600001 -0.061999999 26
4.9130001 0.50300002 -0.061999999 27
4.9510002 0.479 -0.061999999 26
4.9549999 0.45100001 -0.061999999 28
4.993 0.426 -0.061999999 36
5.0050001 0.398 -0.061999999 41
5.0079999 0.37 -0.061999999 41
5.0229998 0.34200001 -0.061999999 42
0.079000004 0.0020000001 -0.0049999999 75
0.154 0.0060000001 -0.0060000001 147
0.186 0.0060000001 -0.0060000001 214
0.17900001 0.0049999999 -0.0060000001 199
0.133 0.0020000001 -0.0060000001 120
0.0060000001 -0.0020000001 -0.0040000002 47
4.9359999 0.139 -0.059999999 24
4.9590001 0.112 -0.059999999 24
4.9359999 0.082999997 -0.059999999 24
4.9549999 0.055 -0.059999999 24
4.9549999 0.027000001 -0.059999999 26
5 0 -0.061000001 32
5.0409999 -0.028999999 -0.061000001 40
5.0289998 -0.057 -0.061000001 38
4.993 -0.085000001 -0.059999999 32
4.9840002 -0.113 -0.059999999 34
5.0029998 -0.142 -0.059999999 40
5.0190001 -0.171 -0.059999999 44
5.033 -0.2 -0.059999999 45
5.0300002 -0.229 -0.059999999 46
5.0170002 -0.257 -0.059999999 47
5.0219998 -0.28600001 -0.059999999 47
5.0359998 -0.315 -0.059999999 48
5.0279999 -0.34299999 -0.059999999 50
0.103 -0.011 -0.0049999999 42
2.1140001 -0.17 -0.027000001 48
0.71799999 -0.064000003 -0.012 21
5.0320001 -0.45899999 -0.059 52
5.0019999 -0.48500001 -0.059 61
4.9770002 -0.51099998 -0.059 68
4.947 -0.537 -0.057999998 69
4.948 -0.565 -0.057999998 69
5.0120001 -0.602 -0.059 76
-0.0040000002 -0.003 -0.0040000002 81
4.9980001 -0.65799999 -0.059 83
4.928 -0.67799997 -0.057999998 80
4.8829999 -0.69999999 -0.057 79
4.8130002 -0.71799999 -0.056000002 80
4.8410001 -0.75099999 -0.057 78
4.9990001 -0.80400002 -0.057999998 71
4.8639998 -0.81199998 -0.057 82
4.783 -0.82599998 -0.056000002 84
4.8920002 -0.87400001 -0.057 85
-0.0040000002 -0.003 -0.0040000002 85
4.9710002 -0.94700003 -0.057999998 76
4.9590001 -0.97500002 -0.057 75
-0.0080000004 -0.003 -0.0040000002 77
4.9629998 -1.035 -0.057 78
4.9559999 -1.064 -0.057 79
4.9499998 -1.092 -0.057 80
0.003 -0.0049999999 -0.0040000002 81
0.001 -0.0049999999 -0.0040000002 82
-0.0060000001 -0.003 -0.0040000002 82
4.9169998 -1.205 -0.057 79
-0.0020000001 -0.0040000002 -0.0040000002 82
0 -0.0049999999 -0.0040000002 85
0.017999999 -0.0099999998 -0.0040000002 89
0.028000001 -0.013 -0.0040000002 90
0.017000001 -0.0099999998 -0.0040000002 92
0.02 -0.011 -0.0040000002 91
0.013 -0.0089999996 -0.0040000002 91
4.7909999 -1.414 -0.055 72
4.8260002 -1.455 -0.055 83
4.7189999 -1.4529999 -0.054000001 95
4.678 -1.471 -0.054000001 96
4.6620002 -1.4960001 -0.054000001 96
4.6329999 -1.517 -0.052999999 99
4.612 -1.54 -0.052999999 99
4.5929999 -1.564 -0.052999999 97
4.5890002 -1.5930001 -0.052999999 100
4.5770001 -1.619 -0.052999999 101
4.5799999 -1.651 -0.052999999 101
4.5619998 -1.675 -0.052000001 102
4.5539999 -1.7029999 -0.052000001 104
4.5409999 -1.729 -0.052000001 105
4.533 -1.757 -0.052000001 104
4.5339999 -1.788 -0.052000001 107
4.5229998 -1.8150001 -0.052000001 107
4.5209999 -1.846 -0.052000001 111
4.5089998 -1.873 -0.052000001 111
4.4959998 -1.899 -0.052000001 112
4.4840002 -1.926 -0.052000001 114
4.4819999 -1.957 -0.052000001 117
4.4660001 -1.982 -0.050999999 117
4.4549999 -2.01 -0.050999999 120
4.4460001 -2.0380001 -0.050999999 121
4.4289999 -2.063 -0.050999999 124
4.4299998 -2.096 -0.050999999 128
4.4169998 -2.1229999 -0.050999999 128
4.4070001 -2.151 -0.050999999 130
4.3959999 -2.1789999 -0.050999999 132
4.3839998 -2.207 -0.050999999 133
4.368 -2.2320001 -0.050000001 135
4.3639998 -2.2639999 -0.050000001 138
4.3400002 -2.2850001 -0.050000001 142
4.3369999 -2.3180001 -0.050000001 144
4.3270001 -2.3469999 -0.050000001 146
4.3140001 -2.375 -0.050000001 149
4.303 -2.4030001 -0.050000001 152
4.3610001 2.461 -0.097000003 107
0.077 0.044 -0.0060000001 155
0.141 0.079000004 -0.0070000002 190
0.178 0.097000003 -0.0080000004 229
0.273 0.146 -0.0099999998 368
0.31900001 0.168 -0.011 499
0.32699999 0.17 -0.011 500
0.185 0.094999999 -0.0080000004 209
0.156 0.079000004 -0.0070000002 197
0.046999998 0.024 -0.0049999999 142
4.5229998 2.2 -0.097000003 131
4.48 2.145 -0.094999999 127
4.5009999 2.122 -0.096000001 121
4.5180001 2.096 -0.096000001 117
4.5240002 2.066 -0.094999999 115
4.4720001 2.01 -0.093999997 116
4.5100002 1.994 -0.093999997 114
4.5349998 1.973 -0.094999999 113
4.553 1.949 -0.094999999 114
4.572 1.925 -0.094999999 116
0.061000001 0.025 -0.0049999999 127
4.684 1.906 -0.096000001 119
4.6209998 1.848 -0.094999999 112
4.6269999 1.819 -0.094999999 113
4.645 1.794 -0.094999999 111
4.671 1.772 -0.094999999 112
4.7010002 1.752 -0.094999999 112
4.7199998 1.727 -0.094999999 115
4.7490001 1.706 -0.096000001 122
4.7750001 1.684 -0.096000001 126
4.7480001 1.643 -0.094999999 126
0.0060000001 0.0020000001 -0.0040000002 134
0.014 0.0040000002 -0.0040000002 138
0.022 0.0060000001 -0.0049999999 137
0.0080000004 0.0020000001 -0.0040000002 139
0.012 0.003 -0.0040000002 133
0.027000001 0.0080000004 -0.0049999999 147
0.037 0.0099999998 -0.0049999999 155
0.025 0.0060000001 -0.0049999999 136
-0.0020000001 -0.001 -0.0040000002 123
4.8759999 1.373 -0.094999999 115
-0.001 -0.001 -0.0040000002 118
0.0080000004 0.001 -0.0040000002 115
0.0099999998 0.001 -0.0040000002 110
-0.0060000001 -0.0020000001 -0.0040000002 103
4.8899999 1.225 -0.093999997 99
4.8979998 1.197 -0.093999997 99
0.012 0.0020000001 -0.0040000002 102
0.102 0.022 -0.0060000001 106
0.033 0.0060000001 -0.0049999999 97
4.9239998 1.084 -0.093999997 86
4.927 1.0549999 -0.093000002 86
4.9299998 1.025 -0.093000002 86
4.8979998 0.99000001 -0.092 85
4.8829999 0.95700002 -0.092 83
4.8940001 0.93000001 -0.092 84
4.8920002 0.90100002 -0.092 83
4.9000001 0.87300003 -0.092 82
4.8959999 0.84399998 -0.090999998 82
4.8930001 0.81400001 -0.090999998 81
4.8709998 0.78200001 -0.090999998 81
4.855 0.75099999 -0.090000004 80
4.848 0.72100002 -0.090000004 78
4.836 0.69099998 -0.090000004 78
4.8439999 0.66399997 -0.089000002 76
4.908 0.64499998 -0.090000004 64
4.9840002 0.62599999 -0.092 52
4.862 0.58200002 -0.089000002 75
4.8509998 0.55299997 -0.089000002 75
4.8600001 0.52600002 -0.089000002 75
4.8569999 0.498 -0.089000002 74
4.8629999 0.47 -0.089000002 75
4.8779998 0.44400001 -0.089000002 74
4.914 0.419 -0.089000002 75
4.9260001 0.39199999 -0.089000002 76
4.9349999 0.36399999 -0.089000002 76
5.033 0.34299999 -0.090999998 100
0.096000001 0.003 -0.0060000001 149
0.167 0.0070000002 -0.0070000002 211
0.18000001 0.0060000001 -0.0070000002 227
0.113 0.0020000001 -0.0060000001 168
5.0349998 0.199 -0.090000004 103
4.8530002 0.164 -0.086999997 72
4.8280001 0.13600001 -0.086999997 71
4.835 0.109 -0.086999997 70
4.8299999 0.081 -0.086000003 71
4.8210001 0.054000001 -0.086000003 70
4.836 0.026000001 -0.086000003 71
4.8730001 0 -0.086999997 70
4.9219999 -0.028000001 -0.088 71
4.9239998 -0.056000002 -0.086999997 72
4.8720002 -0.082999997 -0.086999997 70
4.8629999 -0.111 -0.086000003 71
4.8930001 -0.139 -0.086999997 72
4.9060001 -0.167 -0.086999997 72
4.9109998 -0.19499999 -0.086999997 74
4.9159999 -0.22400001 -0.086999997 73
4.9000001 -0.25099999 -0.086000003 73
4.9089999 -0.27900001 -0.086999997 74
4.9029999 -0.30700001 -0.086000003 73
4.9099998 -0.336 -0.086000003 74
5.039 -0.373 -0.088 52
2.3299999 -0.18799999 -0.043000001 172
1.99 -0.17200001 -0.037 29
4.973 -0.454 -0.086999997 73
4.9530001 -0.47999999 -0.086999997 79
4.8850002 -0.50199997 -0.086000003 79
4.7090001 -0.51099998 -0.082999997 81
4.8060002 -0.54900002 -0.083999999 73
4.9889998 -0.59899998 -0.086999997 72
4.9829998 -0.62699997 -0.086999997 78
4.869 -0.64099997 -0.085000001 82
4.7709999 -0.65600002 -0.082999997 81
4.7930002 -0.68699998 -0.083999999 80
4.6599998 -0.69599998 -0.081 82
4.6830001 -0.72600001 -0.082000002 82
4.9660001 -0.79900002 -0.086000003 69
4.862 -0.81099999 -0.085000001 80
4.6669998 -0.80699998 -0.081 85
4.7729998 -0.85299999 -0.082999997 83
4.9770002 -0.91900003 -0.086000003 85
4.9689999 -0.94700003 -0.086000003 75
4.9489999 -0.97299999 -0.086000003 71
4.9439998 -1.001 -0.086000003 73
4.941 -1.031 -0.086000003 74
4.934 -1.059 -0.086000003 74
4.9419999 -1.091 -0.086000003 77
4.9390001 -1.12 -0.086000003 79
-0.0049999999 -0.003 -0.0040000002 78
4.921 -1.176 -0.085000001 80
4.9120002 -1.204 -0.085000001 80
4.9130001 -1.235 -0.085000001 82
-0.0060000001 -0.003 -0.0040000002 86
0.018999999 -0.0099999998 -0.0040000002 90
0.02 -0.0099999998 -0.0040000002 90
0.021 -0.011 -0.0040000002 90
0.027000001 -0.013 -0.0049999999 91
0.0070000002 -0.0070000002 -0.0040000002 91
4.7719998 -1.409 -0.082999997 71
4.8109999 -1.451 -0.083999999 81
4.6090002 -1.42 -0.079999998 94
4.513 -1.419 -0.079000004 100
4.5900002 -1.473 -0.079999998 98
4.506 -1.476 -0.079000004 102
4.4619999 -1.49 -0.078000002 102
4.4419999 -1.513 -0.078000002 104
4.4380002 -1.541 -0.078000002 104
4.4369998 -1.5700001 -0.078000002 104
4.4320002 -1.598 -0.078000002 106
4.4169998 -1.622 -0.077 107
4.414 -1.651 -0.077 108
4.4089999 -1.679 -0.077 109
